-0.439832 6.648964 4.037323
-16.092524 -5.277775 16.052244
9.415120 -6.853035 4.010403
-8.668674 -15.931569 14.605478
7.491149 15.791721 12.675543
9.313954 -7.122074 8.314620
-2.913758 -15.250780 11.992317
9.388740 12.279415 6.240501
4.613614 -9.760147 0.150768
15.524235 13.874876 12.299948
9.995825 6.602987 5.864196
14.652939 -4.607873 6.430056
6.711102 -0.446351 2.822401
-1.122704 -11.103825 8.281236
-10.374878 -16.072681 10.237833
10.158128 15.084773 7.951802
16.146804 9.032901 11.067578
13.992712 16.087017 5.677576
-14.955765 12.523987 8.738799
3.594381 -7.880393 3.838715
-15.512135 11.519336 2.043944
0.164240 16.068758 15.807585
10.887880 3.025148 6.275536
-15.427905 -5.537070 5.556047
-5.750924 -1.408429 1.699580
-6.416779 4.131014 7.857867
-15.859872 -4.775403 5.200591
12.126109 10.015948 0.560452
13.976269 15.093655 10.020153
-8.147919 -12.846741 15.436173
-14.944791 -14.331639 5.654864
-14.524577 -6.004759 15.007742
13.343294 14.236720 4.966888
-3.221546 15.371557 11.202842
14.405164 16.153227 15.629484
15.902318 -15.500475 5.397053
-2.599133 -15.489537 3.201307
10.841369 -10.431108 11.210788
1.391110 -1.762413 8.746347
2.532760 -11.853268 5.113743
16.067134 -4.647833 13.121560
-10.461524 15.832435 15.645209
-14.923164 15.933310 13.128058
-13.696283 10.396435 7.436599
10.845041 -15.345420 8.050095
3.395924 0.890229 8.850887
13.447474 13.667690 14.138524
-15.422136 14.789665 12.194613
15.577787 15.453109 7.585575
15.255584 -9.949018 3.241470
2.139237 7.763303 14.073401
2.497838 -1.261788 14.939170
-6.857983 -1.055853 13.755211
-16.145448 -15.984064 11.024774
-15.783889 6.308527 13.205430
-5.860736 8.626006 11.972977
-9.895138 -16.041997 1.879054
-3.762000 -13.770421 10.850923
7.874746 -13.277451 6.133671
-10.341783 13.245142 15.522015
-11.846508 15.263273 2.049678
11.092620 12.396655 10.698752
-5.650239 10.730354 2.250311
8.308825 13.916089 15.195784
-15.858815 15.914311 12.166760
-10.059524 5.835609 5.606795
-10.398889 15.358196 5.963745
6.819979 -9.854781 12.866895
2.436987 11.994725 10.531940
-9.560914 -15.293129 7.145354
5.146121 -16.014156 8.408338
-15.322116 10.674104 5.179730
-1.557182 16.159923 0.011657
12.420654 -5.074742 5.748394
15.772492 13.023739 14.317007
-14.773178 -16.020270 9.633206
14.990889 -5.971808 6.771631
9.290535 -6.271107 0.401522
-15.606018 8.635147 1.936983
-9.282270 13.750459 2.235609
-7.837194 14.383324 7.768854
2.243155 6.742487 6.689460
7.133504 5.402837 8.391525
-15.017118 -11.845420 14.838928
12.777965 15.950787 7.507239
-0.398409 2.379112 4.564630
-14.775950 16.016469 5.470968
11.280512 -1.319711 5.761503
1.404172 12.456617 3.170889
-5.969843 15.711357 14.502862
-15.376196 -15.836021 15.417089
-9.833975 14.311140 15.956661
-9.103734 12.699406 7.908441
-16.159954 8.870873 13.651941
-10.441647 16.059375 7.994065
-7.124355 -15.370411 5.951358
-12.716623 15.928078 3.512969
16.135315 6.790648 2.682181
1.071733 12.581705 3.735695
13.321046 4.968177 5.509740
-2.176372 -14.849420 2.056736
8.338705 -13.855405 4.573622
4.174106 -15.064212 4.813804
-4.252813 -15.441986 0.779685
1.084189 -4.708695 8.358832
-13.031229 -12.554812 10.263593
-16.087251 -14.354002 8.618826
16.038982 1.736076 3.549622
9.757850 3.331160 2.061490
-9.310548 9.816877 2.517658
13.186312 2.410012 3.074632
14.450252 1.217339 6.981799
14.856120 9.996287 5.034153
-16.146169 3.541392 3.768363
-16.051539 15.018670 0.525726
-15.392607 -15.801565 5.952056
-16.053315 14.236891 15.696442
7.455686 -15.067734 12.693393
10.086197 -16.039661 3.945913
12.388324 -13.697913 6.604060
9.031401 -16.126650 3.529298
-13.038351 -11.362606 4.102720
5.894394 11.174443 9.847511
14.989968 14.984582 8.006803
0.305265 2.568838 11.925491
16.130795 3.766289 14.576704
4.790435 13.805573 6.768521
-9.038815 7.247251 2.022330
-4.904251 -15.043317 9.709423
15.424096 11.670328 9.208702
-12.324233 13.127102 16.118716
2.997031 -15.462299 3.547253
-6.695160 -2.094536 2.665580
15.656519 -14.391246 5.285782
11.658181 8.826653 6.925546
-5.633685 -1.831816 9.362620
-15.511783 -11.199324 15.858622
14.296426 -15.317311 1.139624
-0.742639 -11.369794 3.128352
-13.064934 -2.902712 3.432714
0.047878 -15.581490 11.655819
-14.236479 -14.112317 5.004657
7.601344 -16.135071 11.841367
-11.876756 -14.741565 8.966318
-15.150933 -13.209626 2.484708
-5.231612 -15.818814 6.363760
-12.750978 4.188188 15.387112
5.972783 12.135638 9.954922
-9.158232 0.869786 14.722928
7.052554 15.235487 14.680318
-16.020224 8.855562 8.649698
-1.914110 -12.761600 4.491532
-12.860934 -10.034834 8.940580
-14.549555 -14.499871 4.651566
-15.272062 -13.754630 15.213164
-14.876416 13.586958 12.153170
-6.697077 14.512337 0.462546
-7.161954 4.065827 4.987083
-13.612361 4.945550 3.612750
-5.270054 -2.110754 0.788169
-11.351053 15.342099 4.505187
6.060365 -15.438012 6.766643
-14.244790 -15.805348 13.331164
16.159404 3.972836 14.001086
9.818958 16.142420 3.092421
-12.144023 2.581290 8.761355
-4.373109 14.479982 2.820550
-4.327944 15.660353 0.991614
-15.869362 -0.772956 11.154473
-10.517218 12.339713 10.091783
2.854035 12.152050 7.330458
-16.095666 -15.866725 14.042249
-13.684006 -15.701921 8.224666
5.933269 6.793075 2.345499
10.925613 -6.441521 6.410051
-16.152786 -9.210651 11.586944
11.105134 -2.690460 12.021086
-16.159989 8.211034 15.815397
8.327370 -9.002545 2.612874
12.098215 15.966071 15.251996
1.805834 -12.030265 10.429773
-13.667936 -13.233668 11.785705
-16.025787 -15.938784 7.864650
-0.995841 12.030274 15.091202
-10.925389 0.327763 15.357468
15.999506 -9.685660 8.588992
-0.314092 15.492000 4.289417
9.612815 -16.084542 8.544602
4.372838 14.023736 11.017262
13.983115 15.133101 0.449483
16.144113 8.476614 12.413453
-2.788799 -1.884662 3.481717
15.498466 -16.149821 5.951203
11.571459 15.629225 15.972835
1.314669 13.812244 14.160827
-13.246220 -15.917501 11.461218
-8.627390 -16.136124 14.424546
11.816493 0.817769 15.513462
-13.825463 -15.587725 2.274657
15.958184 5.644249 4.246308
-5.964102 -11.634003 4.247235
-13.387000 -1.383253 14.983247
0.627196 -15.660608 2.830649
-16.157978 -15.709759 15.222411
2.625341 3.334109 4.902389
-15.890731 15.881777 14.799215
-14.560800 -15.045361 10.303330
-5.703113 -3.613864 14.300555
2.403726 4.934323 6.946246
-13.802929 -8.565457 15.909441
-9.974013 -13.889090 3.521102
16.157712 -4.085467 4.130213
-15.513408 -2.275096 11.464513
15.540943 15.765926 13.890962
-15.834115 -7.417260 0.027999
-12.599676 -11.193653 10.150731
16.151017 -13.918572 4.048274
-7.605318 10.900146 9.313233
8.836491 -15.883663 6.759758
5.663334 -1.276107 11.987419
-8.495433 9.076394 6.975183
4.565878 12.135804 8.757485
1.860425 -13.495953 15.237712
-16.118136 -6.068934 0.776729
13.715307 8.420487 14.847455
-12.947243 4.419802 12.538464
14.970312 4.519212 11.031652
16.137117 1.444146 3.777089
-12.298570 16.151537 9.838634
3.619072 -6.864155 3.731250
13.696039 5.305996 4.912173
4.154832 15.697929 5.025557
-0.705006 -16.036682 3.230773
5.519299 -10.074529 13.327578
14.518132 0.965194 6.734271
-14.441384 5.570559 14.939753
-1.511897 -0.796958 5.277803
-5.006648 8.778893 1.868416
2.982357 15.673000 7.907384
7.282411 11.654115 4.994392
13.412569 14.557996 15.856183
15.844071 5.829750 6.372862
-14.599854 11.030033 9.751256
-15.762226 5.102286 1.199340
14.096406 -10.355570 7.461727
-6.013903 -14.725091 2.383875
-14.664250 8.653370 8.350405
-9.712448 -3.128449 15.021620
-2.237584 -10.202593 4.671013
16.089727 -15.377565 15.132305
-10.078068 -12.251090 10.965201
16.156443 14.645255 0.922895
10.387366 -11.485689 15.277106
16.082948 6.372611 11.222520
-15.525831 -16.141840 7.855458
9.628486 8.124028 9.877575
-15.246020 -3.424705 5.273807
7.745098 -11.454170 4.021700
6.087244 -9.465801 3.844122
-4.569805 6.165368 2.466587
12.190121 -14.139251 15.834806
7.711978 -6.949992 4.253437
-13.099547 -14.608824 15.991812
6.023986 -8.854147 10.761176
10.464674 -15.964713 10.114681
8.355804 14.823711 9.769753
16.096097 1.487697 3.540100
-1.201155 -13.597630 4.352063
12.641988 -8.336553 7.263426
14.894778 14.834600 1.815576
16.148446 -9.528711 3.749943
-7.233116 -10.595084 6.066339
7.775999 -1.988489 15.758133
6.228228 1.376373 6.315081
-8.283926 -10.860301 9.570922
-15.793041 13.755996 14.049293
15.916286 -12.064240 0.806306
-15.229377 -12.931457 7.177442
-15.771162 15.058829 5.434481
13.905737 -16.049944 11.535120
7.479818 15.170809 10.494014
15.839340 9.816149 14.006239
-11.353369 -5.084899 4.720575
-10.755421 -9.547859 10.433942
-11.755184 15.654811 13.449018
-11.141049 12.894074 8.913366
2.306734 1.556573 3.275371
-11.337116 0.684606 13.277128
16.125221 -2.211744 0.880048
1.415893 14.084861 8.039223
-15.578918 3.999506 2.385720
-9.899714 -3.712492 13.439379
-6.449051 -9.370118 7.997878
-4.958882 1.546539 1.405748
12.016950 16.120580 15.877231
11.079605 0.330193 7.323641
10.833911 15.930838 14.158902
-15.400649 -14.876246 14.663771
-11.477024 16.068641 13.047661
0.367468 5.338353 4.452112
-9.458705 12.827484 4.181586
-0.057063 12.770944 11.027909
-6.927274 -3.307730 8.285328
-6.337454 -2.247538 8.489666
6.232869 -11.187496 7.622159
-9.029161 2.669009 14.698203
-5.170133 0.362946 9.581900
-16.045889 -11.769483 7.152102
15.165124 1.698058 2.736397
-16.032864 13.516600 0.281399
15.227083 -16.109328 1.258596
-6.942874 -16.117847 9.125172
-5.444381 -15.877729 12.450106
15.063195 -9.263850 6.084076
4.787869 13.733635 15.752067
0.697189 -3.040794 15.439907
-1.886861 -13.150489 5.738445
15.607431 15.320671 6.558175
12.695621 4.263077 4.543813
1.062959 9.287837 4.279897
-0.211591 -16.078279 2.262248
-14.616669 -15.228644 10.040513
-15.134858 16.157427 1.665016
16.146618 16.153848 15.921284
-14.004697 2.328704 8.853794
12.936486 -4.399531 3.554056
2.617095 0.808192 2.494555
16.157876 -15.215942 1.549527
1.963648 -5.645680 13.986480
1.080041 -9.413800 12.122346
-3.152199 -15.795077 13.733742
16.133015 13.186628 5.886083
-8.253614 15.204107 15.096286
-14.694930 -5.955133 6.647862
5.268146 4.958365 8.551474
10.809740 -10.467939 10.175416
-8.945022 0.023976 2.892009
4.043989 15.590208 12.258424
-15.882398 10.282189 9.468699
15.948600 -0.574472 11.214255
2.394627 15.872611 5.615582
-4.882872 -14.496762 15.459836
14.274292 -2.180203 13.887010
15.315698 -10.202772 1.204114
2.724177 -7.782272 10.678191
-15.312101 13.853021 4.540862
-11.276596 10.953999 11.478673
16.158883 -9.699870 6.866306
16.092401 13.463760 7.572678
-16.028584 -12.482583 13.919047
12.864174 11.513756 14.484909
-6.638370 15.725436 12.758645
2.605163 5.571251 2.560399
-11.728207 -4.998091 6.368337
-11.613817 10.073783 4.979019
10.162266 -14.840856 0.626609
8.245926 1.555065 1.416716
15.931812 -16.051405 15.893224
-15.908359 16.021620 2.989763
3.218675 -14.034481 15.985621
-15.031008 15.247147 4.573839
-7.675479 -5.034713 16.135057
-14.851429 4.759306 15.793346
15.963099 11.820760 2.880836
11.784223 -15.209308 7.314303
-15.704341 0.520008 12.126216
0.984028 -13.196146 2.736808
6.516781 15.718025 15.615585
-9.564512 13.260896 6.266120
10.296257 15.345112 9.484836
-7.295044 -16.102766 9.832353
-11.483940 -13.560571 4.246959
2.638612 9.778194 12.351155
5.830246 3.370551 0.955953
-11.951807 -7.941711 14.676444
2.648290 -6.816987 15.466623
14.998180 -6.311134 7.598478
-8.144589 -5.415695 9.068258
-14.783117 -13.259538 7.349562
15.691583 9.052133 3.876439
14.384746 -8.777960 11.081166
-8.773055 -6.550756 13.684406
-16.000628 -16.159620 12.075780
16.105833 10.437408 7.083288
-5.076286 11.341225 8.840073
14.107092 3.331255 11.971771
-0.774102 -12.883196 10.890083
3.991463 10.443811 11.200913
-3.408342 -14.104984 6.809922
-14.633076 -7.218970 7.489872
-15.224275 2.430950 5.319717
6.719336 -14.706114 3.006193
-16.130894 -6.003938 8.391596
-6.655968 16.101888 7.359514
14.127317 16.151310 10.857348
-10.917993 -2.118144 1.623026
-16.044864 -5.475568 15.311247
13.624639 15.824385 6.131326
-7.393021 3.172341 10.610515
-8.052349 -15.396462 8.538300
4.682018 -0.473845 15.956280
11.321833 -15.634483 6.864887
-5.346411 11.003333 4.077934
16.151605 15.644970 13.212672
1.515054 5.210311 11.124530
1.811133 8.877608 15.171668
16.115079 -4.646153 13.750931
15.114358 6.999374 8.836772
3.903067 15.771165 4.682297
-7.258384 10.684712 6.091249
-8.959535 7.538059 10.860832
13.818541 -0.666466 1.569799
9.996874 15.638519 3.289194
-0.689925 -15.892537 7.764019
6.191484 15.503999 14.588493
15.408246 -14.798791 7.542512
-3.272000 -14.237767 5.354212
-16.069158 -0.035825 3.813627
16.114148 -15.700646 8.070029
-11.486443 12.831857 0.948533
8.771668 -8.626371 7.720425
16.133072 -10.200478 1.168354
-10.485428 -11.350389 0.937999
-15.737024 -1.479460 10.680744
12.823849 -11.133894 10.762449
-1.165447 -16.156128 8.992535
6.370842 13.993653 10.298309
-12.363450 2.739430 14.848434
10.869610 6.251890 9.683637
-7.134651 3.286480 10.561696
-4.400943 9.795834 14.383824
-5.096103 14.558663 4.901844
12.375482 -10.252819 3.491049
-5.339617 1.379279 10.631033
-13.272450 15.828000 2.145769
16.066801 -15.765987 12.425973
5.598410 -2.143285 9.142152
7.430843 5.196195 9.924731
5.803450 -0.816923 13.204309
13.218985 11.436808 8.432203
-5.483591 8.816236 9.601750
-16.150565 12.937646 16.076501
16.148468 14.009712 15.469030
14.257222 -14.693298 4.508982
-15.289705 -15.972260 7.841814
-6.802327 7.958950 15.333368
-1.535178 -11.270686 11.104899
-16.136794 -10.045682 14.728030
10.509231 -14.748350 8.132846
13.917680 10.674520 14.263077
-15.660628 -8.509946 6.106809
5.835560 12.767822 14.161025
4.704907 16.108307 5.605659
-10.852093 15.818291 10.170136
-3.139820 -16.138664 0.060308
1.932388 -3.520327 1.255523
-4.204777 1.469371 4.743868
-9.156210 9.338210 9.089540
11.856073 -3.105432 5.822398
15.498540 16.001086 10.910217
15.703158 -11.535514 6.935065
15.771491 -14.901152 14.607444
14.659442 1.660700 13.786775
12.455727 15.780683 14.865507
-0.736913 -9.741096 9.626494
-15.997751 2.802879 10.557156
-11.635455 10.982549 10.927272
13.642963 -15.795369 0.612974
-11.647510 6.702997 3.263782
-9.806184 -9.694407 3.181751
15.178911 -13.089818 8.575768
10.697142 7.200199 3.886678
8.638581 -8.113509 13.410438
-6.813166 10.268500 14.505804
-14.369133 -11.811578 2.813043
-15.852802 -1.998047 16.083193
-4.165656 10.605989 0.482364
6.320702 -13.480871 11.229691
15.805599 8.534594 15.971809
13.715066 12.495843 1.649983
-9.602781 16.129321 6.175982
-11.794541 14.920893 11.046491
-14.289010 -15.038663 12.815251
5.505428 -14.932828 7.915876
5.829439 -4.236201 13.153770
10.935364 -13.859004 2.421012
-12.435111 -14.095427 13.652618
7.631381 14.260454 5.323093
4.791913 15.543143 10.448719
-12.179805 -14.733727 9.420273
-15.955984 -14.947367 16.008981
0.995431 9.995689 3.516973
-10.407881 -10.820977 6.023082
-11.978107 -15.496381 14.346329
3.212018 -13.794029 6.481636
-13.833469 11.833242 3.598489
-15.451694 -1.833961 2.834933
-15.343638 -16.061386 11.752306
6.002882 -1.795671 6.221629
-15.991087 -13.792548 2.942936
-10.726607 -15.857559 7.401580
0.986720 -14.098765 12.531054
15.963990 8.962424 12.825000
-14.787807 11.093828 12.560327
14.623847 5.523457 15.050033
-10.468522 13.940339 1.893570
16.119967 -15.624695 7.943744
0.928908 -15.600350 11.187344
5.279589 -16.159863 8.278648
-10.910853 10.871682 2.063298
15.317995 5.506811 7.255706
4.063645 12.007818 15.012024
9.719074 -11.403092 14.123114
1.021624 10.355520 4.303726
-4.606780 16.152198 3.235546
15.724157 13.608436 2.120096
-2.546516 1.409716 8.499671
-12.167124 14.838287 4.405208
-7.812213 -12.392927 11.385701
-1.501428 -14.800347 11.214987
-4.576971 10.372284 2.946810
8.385672 -16.159671 5.831288
14.143916 16.159962 12.447743
4.258876 -1.722765 14.525256
11.151288 15.873808 8.877846
6.466482 15.796695 1.961502
-15.970672 -15.085445 6.077608
-13.770932 2.776572 3.882341
-16.039774 -8.612623 0.720782
7.041466 2.724647 3.658345
-10.116871 -14.946869 5.457062
16.010440 16.085404 14.755335
-11.846784 -15.863007 4.165983
-14.320890 -11.707755 6.885037
1.288697 -12.226360 11.791572
-10.534047 -16.028490 7.881333
-3.166028 -12.324726 5.055829
-6.607242 15.623763 11.195797
4.054272 3.558964 3.028118
-15.942993 -2.892786 8.467480
-15.075222 -9.714814 10.214592
16.115178 15.087306 4.389458
-2.538769 5.310763 0.526943
1.285134 -7.231125 5.638911
-14.588363 12.617716 13.517176
14.365336 -14.669946 15.962438
-13.960784 -9.764942 4.448575
-5.677222 2.497326 14.918224
10.703214 -0.651834 13.856936
15.961889 -15.926804 15.045645
14.666117 -15.826582 13.951248
0.246986 14.027771 14.809672
-15.136862 -5.624631 13.621122
-4.814130 7.362677 4.218730
14.269534 -15.859045 6.381992
-14.938675 -16.116769 14.597756
3.552506 10.698990 14.405487
4.019087 7.452079 13.570355
-16.120694 4.703987 4.310914
-7.029757 12.725794 2.401991
-15.131970 9.203515 2.504711
8.373905 16.036842 7.908211
-14.837228 -10.177304 6.463041
6.287829 14.077637 3.419626
-14.148855 6.624178 8.286782
-15.910138 11.522534 2.691959
10.685259 -16.090679 6.596742
13.980736 1.460656 11.659972
14.674831 2.812301 15.835807
-15.897098 4.083488 15.158001
13.443956 -16.112930 10.676884
-15.737798 3.569243 0.773896
15.734320 11.673043 10.897384
-16.042785 -16.102087 11.699082
-15.490594 14.340640 3.317264
12.689560 9.935016 12.082249
4.906179 16.155999 11.898396
-6.675562 -2.478381 6.287079
12.860291 14.141309 7.111564
15.732727 13.869702 3.929453
-14.548526 -10.363101 12.895344
-9.013872 1.655907 13.996882
-0.852581 -13.316212 1.579693
10.813117 -10.914943 11.292995
16.017468 -16.043453 12.399854
-11.298871 15.791294 15.706901
14.285186 -5.812949 14.248589
15.948781 5.343757 5.568701
-9.733092 -6.376145 14.326646
-13.839730 15.220877 6.150021
14.592358 14.469221 3.267245
-1.125865 -6.923322 2.613027
-9.564954 -14.886442 11.866094
-0.255108 11.183594 10.994560
4.631416 -5.882174 1.111517
-10.597606 -7.596604 0.797551
16.101245 -15.420987 9.606093
-1.868557 -6.718586 12.490301
-15.741952 -10.658325 14.555741
13.268128 -13.859004 5.778235
-9.794012 -15.572923 10.441234
-9.490191 15.143983 14.605760
-2.263990 -12.601183 9.880347
5.559008 -15.896122 5.820989
-15.381656 -15.230030 1.763949
-10.538745 14.037147 4.249996
12.785012 4.783078 14.266714
-0.886061 10.981318 11.424267
10.310522 -1.145132 8.859269
-6.283891 -11.764560 9.975500
14.068774 5.879436 7.179937
-1.858124 -16.103685 0.298250
-5.495086 -9.896849 2.171096
-15.730940 -0.297665 8.591807
8.273525 -4.091565 13.637588
12.449434 -9.872591 4.809939
15.148832 -16.110865 1.897042
13.760387 -0.362870 1.252997
-11.353153 1.313994 13.667771
-9.851991 -11.047153 11.287929
13.129786 -5.400839 12.899822
13.964982 -14.359447 3.001064
15.670896 10.668558 1.207039
16.105881 12.250927 13.546343
-16.114791 -13.336134 14.328838
-13.236330 -14.947688 11.591265
-13.691187 7.252921 8.998620
-13.403426 -13.049598 4.139026
14.087067 -3.304902 6.269259
4.360200 13.642089 2.876636
-13.623810 -14.740333 11.573145
-13.818378 -16.096753 10.842619
-3.457607 8.932058 7.539616
-15.274452 -13.252033 4.765296
10.273442 -9.866944 15.249186
10.867891 -6.421651 8.435869
5.537505 13.774684 15.504430
-14.575795 5.986143 11.253939
2.035709 8.964159 9.330676
13.250190 13.825855 1.687684
-15.235892 5.571856 14.824860
4.069998 11.765864 14.169878
-16.015834 -13.075016 9.201319
6.056446 -15.222280 15.106619
6.589231 -7.449008 2.091717
-9.867292 7.005870 15.806510
13.342751 9.239650 13.443436
-14.635809 3.553307 6.365675
-3.415046 -0.353879 13.883454
15.937918 -7.086038 0.129435
-14.153809 -7.967815 14.601547
-7.123869 14.206785 7.731312
-2.770453 14.693949 11.094596
11.261688 1.775811 2.775376
15.490767 -8.665760 6.287587
-4.324749 0.673271 4.290069
-8.124770 16.159902 8.883857
15.711681 13.084107 5.835380
15.225929 -11.420314 7.405768
4.334502 -15.800374 5.021581
-16.111040 -16.158794 14.237195
-15.631070 3.081469 3.601911
9.590073 14.305795 6.994261
3.457293 12.454052 4.950415
-10.322194 14.825038 8.924516
10.681833 14.375041 7.644468
-3.664181 -3.156633 5.132437
-16.158212 -8.960279 11.532370
15.747985 -7.633114 11.502640
14.794321 9.785097 12.548316
-14.791686 16.147626 0.723491
12.480495 -5.530350 14.430190
-11.398902 15.536561 14.428134
1.286328 -16.045046 1.499116
-15.987583 -9.187916 12.081749
16.156574 -15.642495 14.438848
14.726475 -12.972339 15.149876
15.363428 -15.020079 6.992545
-5.347466 12.983682 14.637511
-2.758830 -10.863001 4.616481
8.371728 6.759004 5.376745
-12.410484 -2.032197 1.561785
13.361767 -16.145872 2.260694
-8.543022 14.346492 13.141426
2.512522 -16.147845 6.499068
8.985747 15.906078 15.932961
-13.622480 -6.117692 8.323622
-15.103583 10.953331 6.057957
7.661208 -3.076518 8.516933
-9.906913 12.264535 0.729638
12.351399 -15.960248 4.310576
-10.051123 8.388762 12.165279
13.188576 15.133206 3.325711
-3.277497 -13.024956 10.521660
-15.946426 12.287095 0.356307
-12.015421 -15.463438 10.112558
-0.856215 -15.809001 8.038557
11.703928 12.989561 6.259806
-13.340637 -12.823240 5.022524
1.101778 -6.129170 13.559781
-6.207485 15.658036 14.990212
-13.827847 5.553970 9.048514
-14.640801 9.544689 13.558579
-8.293428 -14.369280 4.331738
-13.738617 -9.412064 8.973327
-14.283578 14.378192 15.320910
14.157352 -6.633175 4.476495
16.152663 -5.026758 5.502249
11.253444 14.026745 1.320321
1.449196 -10.571674 9.811024
-9.564723 15.056113 9.095135
-9.251287 10.623033 11.057153
-7.575015 16.143425 0.403942
-12.553275 -9.601913 9.202666
8.711503 7.780646 10.276056
-9.202723 -6.219424 13.403445
-10.745396 0.831344 0.283621
13.106054 -15.644753 11.783381
-15.983285 16.005315 13.136129
-15.940025 4.244742 11.309497
6.717270 -2.165728 9.546698
-15.393818 13.020103 14.913754
-7.851457 15.672587 15.011690
-2.377197 -4.440592 1.154190
-3.729807 13.403760 15.566420
-11.928675 16.137403 16.087584
-4.273912 14.915395 6.541727
-12.281891 -1.259693 12.475195
13.748872 -9.853666 6.185015
10.152408 15.969308 6.106702
-13.791594 9.844491 2.146266
-15.929464 -2.142252 2.378708
-16.004125 4.323766 2.796676
2.328939 -10.874944 0.642261
-5.088302 0.773326 0.276684
-14.414898 -0.019778 15.363215
1.267187 13.777951 1.100947
-15.653180 -0.215662 7.664957
12.014014 16.147948 6.425572
-2.030885 -9.820849 2.254374
5.772461 14.697487 1.439551
7.836104 1.842695 0.760548
11.150913 -15.762273 15.371503
14.950711 -8.337144 0.156824
6.236336 -14.874728 8.405607
16.014149 -15.352215 10.670853
-14.655057 3.836560 12.275781
-9.068960 -9.232131 1.436272
3.967011 13.876932 1.624458
-0.031220 14.533299 15.045120
8.021322 -12.691557 15.890271
-15.141889 14.004674 14.628851
15.857141 4.246540 14.268823
-16.150221 -1.168748 9.004851
-5.080310 6.670992 4.891800
-12.872125 -13.889522 14.011766
14.358286 14.568930 3.817929
-12.952600 3.703286 2.407074
-14.957691 -8.150806 13.171119
-16.098793 -7.875955 14.850012
-14.882322 8.185660 5.002181
-10.365643 -9.702729 6.391924
-4.614946 8.810521 9.507577
4.954449 15.480033 1.781877
-14.121322 -13.716894 6.803759
-4.867197 -15.507845 1.033199
-16.037386 -15.936902 2.133125
-16.137372 4.157400 12.404140
16.090400 -3.593927 3.327208
-1.535292 -5.281912 1.290868
16.111095 -12.474254 14.019299
-10.465138 -11.896319 3.870311
-14.242724 -11.275177 3.891043
9.266435 15.616642 12.735559
1.149733 4.216886 11.030296
13.946183 -10.383755 5.190105
-14.545661 -13.692429 9.352192
-2.535914 -14.259387 2.115549
-15.143483 1.350583 5.287714
-9.530372 -14.907872 6.782961
15.769064 -3.760427 9.981731
-16.134510 -6.129241 9.607180
12.834659 15.828058 2.060959
-13.950125 -0.623695 14.924871
12.748672 7.278894 2.808215
0.492665 4.762261 2.019217
-15.052646 -6.079337 8.671408
15.797433 -12.770691 9.800349
0.210654 14.461288 4.181724
-4.551032 4.702750 3.623511
-2.589492 1.068870 15.418773
8.098460 9.987957 8.067702
-14.918733 -15.441984 3.074989
-15.413478 7.798181 12.359573
0.593220 15.629246 11.216294
-10.104998 -14.087098 15.836295
11.020047 -0.299064 10.239613
-7.598413 -15.416075 13.126651
2.948698 -13.838724 8.589957
-5.735485 -13.054070 0.113341
16.153025 -13.883557 15.503764
-13.193888 5.720512 12.841150
2.550759 15.922191 7.897268
-4.495024 -9.032588 8.058854
10.995208 8.239548 2.257812
-1.439482 13.080655 3.052725
-12.206761 -1.897092 15.558011
-10.840923 -16.122557 7.005201
-15.098021 4.971979 1.614060
-3.603093 15.988066 2.746821
13.060497 -15.535610 0.669657
-1.294668 15.194015 13.136311
-15.371825 1.695841 9.470735
-15.902286 13.341266 1.745701
-8.639226 -15.463899 0.101222
11.510032 -2.797781 1.187578
-13.877652 16.156998 6.615108
-12.938498 11.033116 3.711712
4.928554 -11.933496 0.635859
15.818732 -9.336785 13.536918
12.434054 8.564212 15.627158
1.676762 15.117901 14.721621
16.159878 -11.534764 6.256293
15.638581 12.342590 4.033925
-0.232897 -13.675775 14.912502
-11.520554 -8.350066 3.707383
14.775655 8.783171 8.701030
3.231032 -8.233157 2.432765
-2.246700 4.101901 0.687703
-9.851725 6.413901 0.859386
-13.771139 13.968760 11.170173
-6.318758 15.687309 6.757291
-3.072455 15.995099 1.477114
-3.312300 -16.135072 15.234913
11.855793 0.606855 9.121530
12.388472 3.904895 5.019701
-16.069423 8.640490 2.074491
-6.850188 -10.826213 13.709732
-6.287012 -9.927810 11.255373
11.116239 -12.667804 6.338978
10.084401 -12.697792 14.441511
-10.286173 15.827456 11.660515
5.369100 7.445153 1.752021
-13.197978 15.753157 13.104956
-12.709980 -7.369887 4.698630
-13.649066 -12.956929 10.425551
16.066674 -15.803451 0.672563
-14.303849 5.876905 5.683773
11.418271 -9.580414 13.380116
5.054339 -6.634818 9.744708
-4.415420 4.518938 4.522779
-5.909577 -11.044783 14.570101
6.035732 -1.710843 1.469857
-5.453385 15.430917 12.329471
15.516307 7.097343 5.841579
-0.675169 8.419856 1.671382
5.877513 -9.369333 15.977772
15.503944 3.891016 4.199577
-1.639650 9.653833 0.395049
-11.650702 0.959054 1.364316
-15.046299 -14.407978 8.723424
-6.654311 -14.115754 11.152252
-6.709296 -2.040309 7.983244
1.028328 7.960823 6.202847
-6.779814 -8.397972 10.930010
10.360117 -6.993222 10.294488
6.417734 13.161216 1.390953
15.505251 -10.362618 4.839655
5.895000 -15.763914 2.123121
12.722643 -11.638463 13.042716
-15.473478 -15.869382 0.768757
-15.210852 11.303151 12.734765
7.585102 -15.838045 6.101079
15.301868 13.463359 4.380963
-4.228272 5.444083 5.708637
-11.938451 -12.199923 5.561334
-3.511103 -10.009625 15.958326
-11.084230 7.552313 6.200583
-15.723934 6.382147 6.260966
9.694543 -0.592273 11.670967
14.846141 -14.366660 12.957513
-12.231228 8.902773 14.097562
16.159781 -11.935146 11.189031
-6.853929 -8.919152 13.920564
-16.122236 3.015982 5.492613
16.074371 4.487138 2.578095
8.416498 2.002988 2.766438
-14.675689 -3.998102 6.144130
15.057058 14.281163 2.978498
10.090260 16.098957 12.548439
8.600200 -1.639428 13.740199
-5.755281 14.100631 6.331683
16.073351 -14.549302 11.738285
16.122361 11.891546 9.152655
16.073518 12.269562 8.351758
10.767377 6.087777 14.141133
16.029305 13.412185 9.404540
-16.153445 -11.167156 6.076160
11.324782 11.665299 13.709664
-15.813609 -5.602681 8.043782
-8.768049 14.255202 9.080952
0.705662 -11.453812 15.098609
7.873028 -16.061045 8.692365
16.128292 15.476811 9.622379
-16.120911 16.130741 10.021339
3.980685 16.011984 14.838977
8.735062 4.272712 14.754561
3.899473 6.344566 5.515780
-11.577599 10.810476 10.664903
8.089160 -14.588421 1.223491
11.467871 -15.792750 4.222113
13.265053 -1.310106 3.782373
2.232209 15.984817 11.989988
-8.802691 15.161691 7.029151
10.621793 -2.986299 1.289639
-10.610918 13.568486 2.866370
5.892395 5.332139 13.544827
-2.077750 15.682585 1.539494
-16.120471 -4.250955 2.681522
-13.197744 9.211919 4.971659
8.130079 14.253330 8.682406
14.667798 -1.786664 7.598291
-16.155989 14.601501 8.746302
14.993118 7.953838 13.384247
1.021938 -15.073619 12.179487
14.898057 -8.564581 2.338330
-5.003309 15.837521 10.854154
-15.683697 15.451688 4.125772
9.286865 13.876979 15.494033
16.153573 -15.374153 9.526202
-8.705919 16.155794 3.684075
16.068572 -16.157662 14.834073
12.980870 6.628932 5.935157
15.794531 15.934740 14.167012
7.337345 -15.063659 6.456415
15.069191 0.137649 4.319651
15.610301 -6.770633 11.043964
-15.730173 13.864775 4.936352
-12.117440 -0.397552 3.306954
-16.131737 2.539819 16.039229
-15.842971 -10.271330 4.832403
2.864368 2.951778 7.562566
-3.539846 -14.991710 7.639271
5.667165 -7.906164 6.314628
-10.413810 0.731039 2.405119
-5.288896 15.875224 2.873708
-1.802235 16.059607 6.490185
-11.622355 1.970948 12.409246
3.654617 15.488247 0.706705
-2.658246 -15.797383 1.590533
-4.294275 -15.913233 13.103032
6.885990 15.486243 6.718119
-11.902142 -14.723575 1.558900
-12.345215 14.094860 2.868250
15.965301 -5.105098 5.047037
-2.644565 12.212363 4.500972
-5.625302 0.476559 3.910656
-16.157611 -15.713551 9.494080
10.831423 16.125556 14.444809
10.272373 -3.350592 4.834924
9.714698 13.216412 12.197552
-6.564919 15.524685 1.424118
2.667851 -6.681339 2.773093
16.136758 -11.781821 0.789649
12.853377 -4.034654 10.504238
12.111712 2.410479 15.169022
15.757630 -14.366757 12.688503
-8.812341 -13.503121 3.499613
-16.010558 0.273390 14.518613
-15.653314 -9.331373 12.934245
5.060122 -10.233244 3.873948
-14.324719 16.104431 5.862976
-4.990642 11.026390 12.823970
-15.514838 -16.051939 4.459763
2.690023 -16.048143 11.011611
11.088579 -16.123426 12.473227
-15.076744 9.509408 14.351484
3.540355 6.668263 10.909746
14.181788 -15.612156 9.527955
5.188062 12.666229 9.353398
7.025655 -15.889049 2.289219
15.593177 -5.550058 12.450700
15.422445 13.209127 15.330891
14.567259 1.224606 11.021099
13.385310 -12.762487 10.538879
4.275562 -15.962172 12.059403
10.848611 14.361795 0.878587
15.372912 13.205642 11.390919
10.808320 -11.245864 15.730503
-10.610024 -15.478890 12.797243
8.931068 -15.876066 5.034843
13.996640 -4.834245 6.958168
5.188753 -6.126156 4.330849
-3.493737 2.880801 15.803470
-15.227662 -16.093067 9.328142
-5.136927 -15.748863 6.248604
7.601414 -13.408681 4.385007
-1.311527 14.584674 0.752384
-7.007478 -6.588138 15.585439
-15.973482 -3.673158 12.451436
13.138400 10.290784 13.959975
-0.898371 -14.417714 0.148446
7.746627 -4.982997 4.605934
-12.913297 -11.537080 3.686758
-15.389797 11.510033 8.309830
-15.579135 -3.777583 12.707309
-13.657866 10.778376 7.890947
-14.831014 -3.529408 13.092780
-15.168609 15.474448 15.644955
-15.840694 2.387402 1.975083
-11.461855 0.189903 3.627804
-16.121122 10.967978 6.726218
-12.797482 2.102686 3.239831
-7.073678 16.051634 3.332422
-0.765231 8.750289 3.564515
-5.693067 9.145454 14.710618
-15.900466 -9.317319 15.600592
0.932061 -15.975267 10.907613
-12.354496 16.125445 6.670518
-5.503988 -6.870482 15.928203
-13.431121 -6.559003 7.710536
13.893149 -15.307057 14.987133
-7.689059 -10.517938 10.174613
-16.150265 9.306048 10.738840
1.336091 -15.262666 3.606965
16.145799 14.330111 5.493876
14.749628 -14.489117 12.240841
-15.759950 -15.638001 2.368762
-16.159450 -11.941908 0.461435
14.333263 -13.322938 0.127703
-0.811488 12.797293 10.874906
-2.815628 15.202050 13.861165
-0.305851 15.223107 15.875792
-14.645102 -15.753952 11.246759
13.330853 -14.987066 11.191557
-12.999431 -11.580037 8.028629
-14.145494 13.909959 3.959606
15.727024 -13.197608 0.728331
16.117448 15.817590 1.350132
9.809091 -3.581609 8.734533
-6.222231 14.233197 9.057841
-12.515962 7.194062 15.568500
-13.694952 -10.185793 7.733749
-6.406073 -13.629033 6.940497
16.134490 11.503289 14.009133
-14.671196 -12.296206 2.118008
-16.151034 -14.408735 1.168627
14.639321 -13.900387 6.190529
-15.084541 10.054829 8.771557
-4.848314 16.091038 8.695319
9.314617 16.094596 7.087344
0.913374 0.885272 7.833405
-3.540781 -5.938724 11.796957
16.155975 16.059028 0.454402
11.104578 1.801622 0.152482
11.506056 -8.252307 12.038123
-12.535948 11.339459 14.595989
-16.153584 -6.200442 1.105113
14.909849 -5.906112 0.601092
-1.155277 -7.557026 13.471613
-1.384686 14.358413 11.510537
-3.352710 -12.761355 8.927097
-15.221201 -4.171477 15.773465
-8.281041 -2.973416 11.705397
-15.427894 7.861747 7.299416
-14.166630 7.885339 4.024476
16.054007 -2.356617 7.889048
3.980232 11.473885 10.373596
-2.389646 -16.157787 1.808806
8.849123 -0.916043 9.243697
3.797011 12.548704 4.815163
14.587258 13.404401 15.290344
-11.138766 -15.596442 13.889802
0.681461 -10.843778 10.440847
-11.915007 -14.094243 11.174139
-10.201714 -12.936310 13.929862
-12.916143 -11.794496 5.936906
-4.922895 -8.525550 10.300573
11.422970 2.731201 7.695584
-15.960848 -6.838564 10.746860
-13.548806 12.298833 3.893669
16.156653 3.980095 7.124429
11.126426 -1.041894 15.674146
15.212583 -15.868699 11.297659
16.140614 16.152310 9.874605
-2.025864 0.247648 14.825956
-2.586430 8.635363 13.023553
12.686454 3.187753 6.133370
-11.407787 6.819295 3.709909
-3.980649 12.775075 11.775673
9.538527 -15.449738 9.930875
8.285498 16.027044 15.374049
13.758680 -13.719732 7.794530
15.957763 -15.660729 5.326872
-16.141522 15.919158 12.100662
-15.709061 7.794846 16.009051
15.407164 -10.864273 14.366020
-11.847483 -6.409686 14.228792
-5.245380 -13.066905 15.878655
11.735753 15.698919 7.165691
15.867856 16.158938 7.414258
-6.775177 -12.995669 4.739528
0.235349 -10.423261 3.235444
0.418405 -15.905613 10.593128
16.123633 3.160002 13.630194
-2.059515 -2.770802 13.733842
11.388732 -5.653342 8.757770
-1.919682 -12.992640 11.212569
0.084840 16.143649 14.644128
-12.943244 2.955798 5.798295
7.309315 7.516584 6.023894
-0.242386 13.602419 6.136618
9.412224 16.069783 8.557244
5.396367 -14.612557 3.263531
6.415519 14.588784 6.056981
3.800356 -15.641650 7.177420
-6.127276 16.147102 1.229776
5.298555 14.378289 10.068341
2.956177 -10.530505 9.499190
2.318422 -4.947970 10.238585
-4.460704 -12.003433 5.009632
-8.220933 -1.574306 12.068220
11.382612 13.599356 12.012176
14.969579 13.785193 0.047425
-11.546439 -15.402701 1.994739
4.766988 -5.703478 2.976591
-1.499252 14.503313 13.168613
16.157608 -9.229679 3.328313
-15.751841 12.571073 15.446774
14.939804 -0.452683 9.882746
-14.329988 -14.745871 15.970252
13.795973 -1.588296 9.262002
15.203803 -12.952022 15.655339
-0.837685 6.367026 12.743627
10.131871 4.694987 1.675944
14.084029 -15.134357 0.607004
-15.494210 8.413116 4.773185
-5.502489 -2.583588 4.871327
-11.048695 -15.775791 2.001884
16.134383 6.954197 1.797986
0.330780 15.987831 8.215733
5.945683 -11.881812 6.008421
4.413278 15.074530 9.503443
-13.581053 -15.437850 1.494743
7.631936 4.226798 14.124526
-13.507420 -11.524773 11.889298
-4.530922 4.151965 15.579296
2.224058 -13.774241 12.754019
-14.299201 15.541496 11.569416
15.011104 -7.900045 2.376996
-9.722448 0.886801 0.070347
-13.011176 9.288461 12.457684
-16.146639 10.300760 9.045880
11.081600 2.002961 6.139020
14.961641 0.512224 10.116137
6.778286 -15.653331 10.312521
-5.106767 16.052372 8.784431
-5.498008 -2.021241 9.809805
-1.202479 6.623080 0.853576
10.924425 16.154885 11.311316
-16.120537 -16.153135 6.515831
-11.940716 9.570481 3.366508
5.306616 1.340637 5.248503
6.870531 -1.985822 15.781703
-16.115359 -9.917079 11.269460
-10.674879 -0.373136 12.523136
-2.236243 -1.040083 3.604607
11.644351 15.536517 12.427105
16.118809 5.682611 0.587704
-2.304100 -6.538513 6.548380
0.743404 -13.868630 9.645874
15.724676 2.119997 4.189512
5.343477 -14.789585 8.022013
-16.034070 0.299805 11.883612
-15.890546 -12.882856 0.795247
13.980493 -12.640963 15.476308
-13.148626 12.172014 13.382628
14.779480 -11.066208 4.618529
15.248775 -14.701807 1.398302
15.152127 15.792568 3.035102
15.274571 -15.162161 5.432193
15.399064 -1.546248 14.886868
16.100657 -6.389036 15.832314
9.344338 14.601529 9.220912
15.900342 12.922782 2.628469
-1.073554 -0.956785 6.878773
16.157191 -14.402931 7.972146
10.815490 4.589336 13.271759
16.085994 1.901150 3.956637
-2.751423 -14.303400 6.807835
11.903606 -11.291243 4.811118
-14.735708 8.403370 6.773651
1.882047 -10.601792 4.274080
8.997289 6.920138 16.022218
-6.700275 16.055969 3.712282
-3.827211 15.986229 4.709631
15.128803 16.093888 0.350481
-2.168039 -6.714745 6.414708
-16.158703 -8.164841 6.705682
16.059026 -2.283884 11.738509
-16.155059 -3.839266 8.928023
-9.394228 -8.798029 1.101330
14.815398 16.077541 8.055508
3.577833 -16.136341 5.010630
3.623967 16.087060 3.055264
15.612355 14.936730 9.231973
-3.943566 -7.084219 6.922564
4.055028 -15.847160 15.006567
-7.651888 15.794548 13.320273
-14.377513 -11.588460 13.440763
6.185761 15.420459 0.201025
4.961656 11.685362 1.280871
-15.391687 -15.862810 13.879450
7.444975 -9.294178 0.380430
7.219667 -15.154675 4.968384
-16.151333 5.082427 10.475395
-13.134387 11.962329 8.313798
-6.369385 8.407715 8.595247
-13.507001 13.364538 11.969176
11.568207 -7.748070 7.734289
-13.645306 -15.503810 3.151207
-10.858774 -15.397771 6.214148
-15.390761 11.042114 5.612045
-13.330923 14.351691 2.611022
14.735905 13.964103 14.598112
-15.111243 16.004128 6.825235
-7.388635 -15.786062 14.840651
-1.354829 -6.670704 7.010739
5.597575 -8.747029 12.219192
-15.777711 13.413972 2.716899
13.475799 14.290724 2.988556
8.734751 12.549168 6.331357
-14.621364 12.612911 10.206977
-13.271439 -11.681583 6.418638
10.841845 -15.304399 15.852874
3.004764 -15.401330 13.837685
13.629081 11.562735 13.803495
-11.044261 13.415041 15.974928
-10.695207 -13.534095 8.713459
15.764429 -15.767830 3.525743
2.811181 5.355188 6.431147
-15.086910 -7.956108 15.777606
15.380973 -4.078610 8.733606
-12.072875 14.974390 14.840095
4.272813 -1.222803 0.732134
15.346765 -1.031467 9.307692
-0.253016 -5.073075 9.454737
8.495043 9.363115 10.942383
6.238845 9.625598 0.795482
15.141567 -16.036968 8.757261
13.734382 -16.134278 1.365094
-14.379825 15.740437 6.541877
12.001897 14.769629 9.809578
-13.665049 -16.057563 0.060528
11.754076 -12.456296 0.642548
-13.532899 -2.128106 6.718245
-10.852930 -15.341036 12.686737
-2.834808 -6.501912 5.851268
-13.247832 1.370601 1.201500
-3.767742 -15.477279 0.522890
-15.343135 13.722742 10.748631
-1.933071 15.707695 3.872484
-11.927403 -12.907212 4.117030
-15.277399 11.173022 9.646011
8.422234 14.549283 15.561138
12.119673 -11.810094 2.478935
-14.289177 -3.563473 9.622237
-1.557537 -16.020370 12.936410
13.456232 4.046165 8.198020
-1.150634 1.427408 7.907456
9.576266 -16.155429 13.246472
3.179081 -7.505306 6.589670
-16.060671 -0.257185 1.090819
4.499964 -15.564073 6.350074
-9.246665 -14.286465 13.464431
-0.589593 15.958853 10.921529
16.144549 -9.633524 0.131940
-5.773166 -15.074973 13.584726
11.553511 -5.816289 4.185962
13.211975 -13.626601 3.940258
14.037775 -8.559608 10.232842
0.120732 -5.923696 3.366737
0.999494 16.158352 6.665155
-13.979064 10.486629 2.312970
-16.116093 -15.643088 3.193792
-3.420504 -14.680854 7.014482
-11.680241 -1.166754 5.850989
14.199224 14.724507 12.433634
-13.532932 -16.124599 11.592054
16.055153 5.412680 9.597504
-10.205321 -14.030660 0.677368
15.353219 -4.603042 4.118702
15.122181 16.022549 14.444997
5.711593 -14.198061 10.267056
-15.851369 -15.564928 8.364297
14.917826 -8.815907 15.832616
1.602436 -9.640145 5.868308
-11.218848 -14.312476 1.646069
16.133171 -3.639026 6.259965
-15.105509 13.421254 14.576148
6.921404 13.811231 13.145634
-0.910639 -7.030537 8.940554
6.231218 -7.031899 11.335231
-15.878423 1.471646 7.334478
-15.413312 -11.555323 3.975083
13.751171 -14.809148 4.984124
15.764795 7.712549 3.975321
-2.197481 9.172193 12.798297
11.259298 9.171827 4.460711
15.214240 15.268506 8.610031
-16.036402 -4.708647 10.023539
-12.823450 -0.044015 9.394166
-14.830763 -13.064580 2.711824
0.639615 -9.329353 5.901187
-7.098649 9.997571 15.174054
-14.485025 -16.037458 0.662087
-5.130639 9.730744 9.137489
-3.457268 11.390420 4.795346
-12.326430 -0.095318 7.916530
14.297037 -2.801845 7.774837
5.439769 14.746702 4.424502
10.709858 16.109100 15.812723
13.676644 -15.402425 5.899743
-10.888350 2.442941 4.255704
-16.074258 13.633892 11.993723
-16.012995 -8.274769 2.812689
15.777380 2.409078 7.356915
-2.250978 16.008427 9.198324
-15.294123 12.754432 3.155128
2.722487 -9.421363 2.218185
-1.033884 14.759153 13.422958
-15.419414 -10.969561 5.320294
-8.870473 8.156997 8.955386
-4.363116 -12.313930 11.547335
9.801681 16.153166 1.939156
-12.041161 5.092644 1.411991
3.399998 -16.140294 9.790032
-14.160068 14.309935 6.328875
6.243068 -7.739055 5.341468
12.078901 -2.886428 9.587717
-11.194245 -1.868564 11.069342
-12.076167 -3.608397 13.000984
-16.144449 -15.236369 10.505706
-16.018976 -2.014901 15.680336
-15.748314 6.740034 12.172924
9.599280 9.053258 2.757899
1.856872 -14.495366 0.391394
-13.516220 -16.003749 6.374430
-5.863765 -13.171544 5.988956
0.738619 16.156220 3.787124
13.295335 1.769235 7.668886
-10.277682 9.563746 7.677940
9.088906 -4.007988 15.177020
-7.522816 -6.232790 5.413573
8.414891 14.934752 5.751759
13.715056 14.127719 3.942429
-13.275322 14.459841 9.605378
10.831689 13.877348 13.235710
-1.579924 16.082662 7.795405
7.848495 16.156259 3.415594
8.214133 16.095498 9.875214
14.056865 -11.352685 11.795187
15.590027 4.082735 9.898547
7.659934 -14.485342 4.039502
-6.386022 -15.720560 8.489698
10.848725 -15.901433 15.330912
2.278285 -9.099105 10.894731
-4.989464 -2.305162 11.636117
-5.145907 -5.358861 6.893962
-2.837137 11.462389 0.708492
-13.451545 16.097128 11.023081
-15.062534 -12.980790 8.126757
-16.093262 7.455731 7.830137
16.045393 7.316066 14.271673
-9.203141 -10.088617 0.683012
15.299816 -7.426340 8.816695
14.182050 -13.858023 11.491178
-14.774566 -15.427096 9.402708
-6.013159 -14.538976 15.218622
11.669419 -15.395879 12.686050
-11.344854 -15.185891 12.051942
-13.176557 13.341241 7.196786
-10.773858 15.531050 11.300753
-4.659917 -16.157974 5.483962
10.656539 0.364198 13.081537
15.840379 -16.133548 8.119210
-9.433122 -11.253796 10.225369
-15.854242 15.716609 2.608496
15.975921 -10.198384 7.264096
-14.186059 -12.249981 6.716520
-3.682564 13.222474 12.503130
-1.940132 -13.655680 5.191546
13.049552 12.021614 7.785425
-14.768695 14.700860 3.459341
-14.966916 13.371497 3.754206
-13.588158 -15.442303 8.960892
-12.100828 -3.066056 0.234699
5.888665 -6.582912 13.697008
-15.978235 -9.238457 3.042294
6.781504 -15.839396 1.342520
12.208810 9.819597 4.427042
-11.296021 0.059688 12.247041
1.790812 -3.139716 14.192631
16.074461 1.048251 7.553712
-3.685166 -14.224954 14.381966
12.742463 11.516063 7.766341
15.897543 -5.134684 4.317325
-10.262229 -11.651281 5.198699
11.806220 13.791957 14.322000
-16.158014 14.981039 1.134131
-5.166035 -15.676064 0.051713
-0.803457 -4.485892 4.689600
11.031754 15.954900 1.786991
8.016603 -7.272624 11.921083
15.854734 15.455317 15.300220
6.731333 -2.591744 5.447242
-10.779502 4.963101 7.460333
9.098207 -12.624355 1.276713
-13.110855 -8.248350 6.846840
-10.960751 12.583764 1.270703
-4.377923 -13.092304 10.204335
5.239952 -13.464868 14.389678
16.142666 1.169361 7.975660
13.747350 -8.053416 10.868413
-11.283789 -2.090975 13.316963
13.091844 -0.084731 12.010897
13.075084 -2.279761 11.177602
6.976025 7.243576 12.475163
-10.421249 0.529676 1.940269
-15.318580 7.954946 3.414443
-1.930393 -7.989482 1.477105
-3.356967 14.285854 15.600171
-16.158036 -15.432279 6.126418
-4.391644 -11.881660 7.750921
-11.146254 -4.714612 4.873823
-4.771010 -15.527637 1.303013
-15.522984 -14.080701 11.260652
8.865326 -6.058819 14.967656
-14.534663 -1.409475 14.346371
4.856691 10.210224 2.497994
-4.235844 -7.415397 6.223353
1.309872 -15.556842 15.787009
-16.159211 11.584132 9.714014
15.670689 10.476039 14.139292
-15.385193 12.322844 15.453281
-7.186339 -8.339231 1.378129
-3.297433 -15.017628 10.283774
7.050181 15.422327 4.069825
2.977473 -10.577869 14.440962
-12.815213 -14.872587 1.919509
-1.487448 16.120354 5.771060
15.627631 16.113505 12.953800
10.016233 5.494208 14.495989
15.466583 -6.808164 7.354028
12.321328 2.523479 0.928822
12.250578 9.108123 4.314309
-10.666949 1.085262 11.802301
-10.731304 4.428218 1.139651
16.040239 16.103756 6.513559
-0.944877 -9.111926 12.129221
-5.441622 -7.587315 5.445619
-14.374912 8.820520 4.411141
-13.753066 8.588481 3.874438
16.114914 -16.149171 14.831905
15.411198 -15.709799 11.783541
5.971522 16.159485 12.496758
-0.032828 10.642670 6.341877
-3.283436 14.791451 11.731593
-13.768980 0.248986 9.133946
-10.880701 -14.870792 10.816827
-15.126207 -3.721240 4.506809
14.959522 13.481833 8.366468
-5.547020 -12.517593 9.020851
16.083053 -6.099717 6.011896
15.398590 14.120447 8.696453
-13.231169 -15.621967 4.482665
-8.728950 1.611683 8.193147
9.286261 -14.016362 6.252179
-4.340582 -16.153961 3.251277
0.776143 -2.621701 10.080772
12.467493 14.618978 3.232047
-10.345793 -14.856755 5.603034
-6.408639 11.969574 5.056677
15.866717 -3.042214 0.591599
0.993548 2.657754 11.893332
8.220963 2.392788 5.333234
12.258392 14.874920 5.155056
14.552517 -4.059955 10.049132
-3.522699 15.923377 3.123408
11.862155 -3.616309 8.258375
-10.241001 -15.999407 10.806006
-14.799016 10.983280 0.314368
-10.091226 15.650608 11.800950
14.777931 14.124929 9.436589
7.791057 -16.126684 11.681327
-12.863614 -14.752965 2.260022
-7.081599 -15.392844 5.665715
3.681805 -2.300536 5.388239
15.994118 -16.147009 12.983922
-9.292967 -1.497312 9.474716
3.541426 -15.992845 8.078200
15.462404 -0.504143 2.422277
10.187243 10.652671 4.223557
5.167797 4.059751 14.070619
-15.693174 -6.446854 7.132778
3.525921 1.351669 2.764519
16.158893 -7.922608 14.223012
3.516424 -14.166522 0.446851
10.833738 -16.157673 15.333017
15.289054 -15.155044 7.202022
-11.390352 -16.137327 14.270869
-14.971103 13.065736 14.731307
15.901405 7.105933 12.121738
16.159361 -6.511959 15.771021
15.968028 -15.767584 1.392691
-15.969299 5.114403 0.979526
-16.067369 -2.085557 1.613084
15.816924 -3.999301 10.584628
-8.227260 1.060368 14.768762
-11.904061 -5.614898 3.796055
9.844962 13.528025 9.754121
-8.810384 11.182427 0.778492
14.545767 15.545657 5.341498
12.382274 6.179350 6.486734
16.105971 14.745841 5.231334
10.411188 15.753732 13.446513
-10.613110 -16.154107 14.958366
11.422544 8.287899 1.016394
-11.944191 -6.385468 14.553957
8.452011 -7.072610 6.448764
15.762498 3.560036 14.030293
-12.547858 10.616916 12.140498
-13.339551 12.505002 2.228891
15.806130 4.697568 1.614568
15.693590 -13.310147 5.794298
5.805094 15.023442 7.789775
-13.448771 -5.713932 13.416187
4.824620 6.849730 2.842306
15.041310 -11.903215 1.590001
8.311792 15.822018 1.837080
-14.256539 14.906187 15.175976
-16.103365 15.424087 14.437003
12.457291 11.234925 13.398578
16.126020 -4.814800 7.981650
-6.189209 15.957002 7.223948
-6.623052 -15.397435 7.025933
10.217950 8.901238 2.467161
-15.778681 -16.159993 4.061346
13.236797 15.099812 0.015642
-16.106226 15.740542 5.997756
9.447118 -1.479274 13.566604
15.332275 3.925844 2.747115
-16.081347 -15.836695 9.667918
-7.995219 -0.955031 9.808912
-8.928783 -10.798087 14.474842
5.183771 7.742657 9.650639
13.313409 14.646670 15.986642
14.482431 16.050998 0.854486
-9.166118 -15.328064 1.633145
13.560093 3.309520 4.297648
-0.789942 -8.345984 1.384113
-0.258482 15.379477 7.241665
-0.824248 0.686717 11.553587
-12.830622 -3.342666 6.502961
6.165581 -3.946512 0.181064
-2.700866 -9.408878 0.182582
9.487250 -10.961154 9.768842
-15.981547 1.794019 12.049697
16.143023 15.328367 5.221608
15.759831 6.881726 0.407250
8.758152 -14.573186 8.002213
15.548699 12.707020 0.116713
-9.238646 5.359866 4.897761
-7.511697 14.681901 0.784853
3.869528 1.979128 6.011556
12.247429 0.236440 2.023925
15.572905 8.599661 0.639986
-7.499847 14.250664 9.970569
5.561317 -14.804343 6.692767
8.779334 -1.088526 3.351785
-10.080796 15.253246 15.626192
-2.872704 -15.737103 15.876993
-3.995261 2.915165 10.268384
-13.722735 -7.333626 10.021436
9.053578 15.082539 13.296994
12.234121 -9.171837 8.712836
-7.536209 -0.265430 1.649391
-13.589436 -16.137302 9.950541
2.213187 -11.868044 0.632560
-12.327714 0.069024 14.493779
15.267705 -4.861889 3.593230
-9.332284 15.996401 7.467463
-13.724082 14.073011 12.751903
-5.098744 16.068339 2.612716
-14.734239 -3.334056 3.897395
-12.549194 11.775972 7.561229
-6.467492 -15.959412 0.397472
-16.052906 12.243356 13.167086
4.745783 1.992087 0.744846
-16.155582 1.306771 9.892532
-15.138693 16.017134 13.033367
-16.141644 -1.797387 1.365359
-12.023337 -10.018676 7.704171
-14.844605 3.950914 8.265960
15.539630 -10.125545 6.262269
-10.021173 -11.632456 12.968608
15.590446 7.083259 5.571765
-15.426422 10.689244 15.992705
16.159605 -5.439072 6.088650
-0.965381 -15.989319 4.881993
3.651463 13.345344 9.511792
9.186156 -15.638836 15.837281
-9.394715 12.337720 16.027511
11.777575 3.782813 0.438580
-14.251286 -12.290690 11.687799
-6.306990 -15.676495 15.315446
-5.168685 -8.376205 6.384848
10.604352 7.446321 10.013802
3.542652 12.708336 13.130002
-11.429110 -1.785427 5.468648
-14.107320 -5.655714 6.642726
1.017368 7.656744 9.262238
14.843311 16.036511 15.444725
